-194.546 30.1692 91.9316 
190.802 -92.2706 36.5971 
-237.716 -18.165 92.2066 
-242.179 -29.3285 86.5557 
-172.995 -43.6292 82.0413 
-233.463 -56.5157 80.0146 
-220.021 -46.7244 89.4547 
-244.361 -39.6584 83.0183 
-144.817 1.78104 115.743 
-235.879 -69.4398 62.8408 
200.353 -97.281 39.1477 
-248.158 -66.6571 78.1169 
-126.617 -16.1341 113.09 
143.344 -95.5724 -32.2001 
101.761 8.50443 50.4098 
-230.942 -65.4755 30.8162 
-217.516 -68.9697 69.7952 
52.2607 -55.8834 29.0908 
-235.455 -7.51935 95.1635 
-190.748 -59.7606 77.1264 
44.6007 -17.5131 53.8364 
198.497 -79.8772 50.6405 
-208.809 -2.99257 97.9033 
-112.882 -61.9956 67.7714 
211.667 -85.5303 52.9085 
92.787 -68.866 20.792 
-218.484 -78.1908 39.6536 
54.2693 -69.8349 -2.36398 
226.66 -39.4155 106.734 
-199.601 -28.0406 95.1989 
19.0274 13.4722 62.0927 
123.47 5.60979 56.22 
-242.801 -51.42 74.9706 
-220.662 -32.2331 96.2314 
-7.77235 14.8675 60.3887 
88.7557 -79.8692 1.66514 
-160.581 -60.4043 74.5039 
-247.545 -5.8168 94.8135 
-125.141 -58.8692 70.6434 
183.255 6.42688 59.1665 
152.74 -72.8479 33.0333 
-179.039 -4.58577 93.8466 
-213.068 -76.1447 57.2559 
116.326 -95.6858 -60.6457 
25.3656 -15.762 56.7272 
60.098 18.4033 58.3435 
-172.71 8.34642 93.7054 
206.559 -108.044 35.8442 
29.4744 -36.0026 45.8551 
60.7427 -67.2726 14.2644 
135.052 -13.3677 44.4381 
36.8886 -27.2704 49.379 
-66.2602 -20.4166 38.1691 
-45.0827 -27.4217 26.7907 
-103.911 -47.587 74.6685 
134.717 -6.55058 51.2907 
-46.772 -18.7069 37.7766 
57.8904 -41.8204 37.3875 
-198.06 -77.2979 71.6006 
185.613 -69.4135 51.3104 
-230.564 -35.4722 93.2096 
209.59 -39.7857 87.0989 
26.255 -0.279406 57.4918 
145.662 -53.2471 38.7221 
103.018 -69.3814 23.4288 
186.055 -117.47 -37.9982 
14.79 -28.2911 47.7964 
131.727 -85.4599 -11.5351 
98.5985 -85.1682 -14.0013 
-176.735 -74.9751 70.9404 
-225.044 -0.733851 96.2939 
-152.514 20.7893 113.254 
162.925 -112.254 -46.9739 
55.4087 -72.5452 -15.8396 
85.8431 -81.9175 -11.9892 
-88.4621 -28.6753 69.32 
83.2722 -68.1634 15.764 
179.019 -83.0081 29.6549 
178.921 -75.6684 40.0143 
93.8559 -75.6906 9.63352 
-36.5887 -23.8153 37.2215 
1.11331 -49.292 30.5228 
35.6053 22.339 62.5471 
154.323 -78.587 24.1889 
-100.11 -57.9925 68.2914 
-185.86 -47.1437 82.9104 
-31.8252 17.8484 56.1744 
11.145 -18.5651 54.6222 
13.3424 -64.0984 7.30586 
183.146 -24.6924 71.1399 
105.714 -48.8902 31.9779 
-100.771 -64.2499 59.3131 
105.807 -87.7139 -53.4181 
-189.736 3.13392 94.2906 
84.1637 -36.1384 35.4068 
133.508 -93.4424 -34.65 
-29.3711 -31.7716 28.9932 
-224.863 -75.1536 55.8385 
68.4259 -52.7925 29.3054 
-241.316 52.1838 56.5248 
-248.438 -17.1182 92.4719 
178.138 -32.828 64.2449 
123.4 -129.182 -52.6892 
-205.351 -38.5209 91.7779 
-206.757 -85.2419 45.6854 
141.145 -78.5309 11.4757 
185.629 -109.094 -28.0989 
134.896 -71.9003 29.5935 
160.002 -8.90883 57.838 
161.475 -98.4557 -22.5092 
170.141 -52.2884 43.5366 
46.4569 -67.1155 11.1078 
195.946 -85.5401 43.1351 
-9.7037 -6.6421 53.1093 
113.719 -78.6616 1.87707 
6.25521 5.6177 60.5423 
17.8487 -42.6417 42.5679 
152.654 -119.582 -52.981 
-154.166 -66.4098 72.7678 
91.3622 14.3293 50.3645 
-196.269 -82.3933 61.6689 
175.597 -94.9371 7.47724 
211.364 -95.8114 45.5436 
-206.529 25.1664 91.731 
166.482 -130.588 -62.7411 
154.163 -99.553 -30.6732 
224.357 -111.835 71.9296 
142.311 -100.214 -43.0315 
-203.485 -60.2427 81.7864 
205.995 -50.8054 78.7713 
235.572 -60.6618 91.9303 
-138.142 -9.97122 113.345 
78.6843 -56.7183 29.4109 
121.315 -59.0072 36.6158 
156.09 -26.4944 39.0585 
107.843 18.0475 51.8994 
224.428 -86.5804 79.1113 
-136.009 -70.3756 67.1709 
-4.286 -34.2656 42.526 
-166.203 -94.3105 36.7137 
35.5237 -47.6196 39.1637 
-215.259 -23.0021 99.8929 
-54.1681 -10.7652 42.2167 
131.761 -23.5673 36.5991 
127.529 -98.5296 -45.9895 
-154.837 -85.6115 24.0591 
183.081 -100.934 -10.6824 
